266.34375,933.40625,13.60000,76,95,25
273.40625,932.93750,8.70000,135,140,123
276.53125,931.78125,8.54000,148,147,128
275.31250,932.62500,8.35000,80,84,71
266.25000,933.50000,13.53000,95,115,47
266.09375,932.65625,13.14000,111,136,54
266.37500,933.03125,13.24000,109,132,46
273.40625,933.50000,8.27000,103,110,93
265.96875,933.00000,13.51000,95,126,41
276.15625,932.46875,8.61000,99,100,89
274.78125,931.84375,8.45000,133,144,98
266.37500,933.06250,13.43000,98,119,42
266.31250,933.09375,13.47000,109,131,51
272.71875,933.28125,8.67000,100,103,86
273.81250,931.81250,8.22000,142,136,118
273.56250,932.56250,8.47000,133,143,105
273.03125,933.31250,8.82000,108,109,93
266.78125,932.65625,12.87000,114,140,51
272.56250,933.40625,8.69000,103,108,88
273.37500,933.03125,8.43000,106,108,95
272.84375,933.43750,8.91000,103,107,92
272.68750,933.68750,8.70000,96,94,76
272.93750,933.62500,8.04000,107,121,90
274.59375,932.87500,8.88000,92,98,70
275.15625,932.87500,8.40000,87,97,72
266.46875,932.87500,13.03000,74,98,37
274.09375,933.12500,8.25000,129,148,84
271.68750,932.53125,8.72000,103,99,83
272.28125,932.87500,8.51000,91,91,66
266.18750,933.56250,13.67000,106,128,48
264.40625,932.81250,13.42000,73,103,29
264.21875,933.40625,12.96000,87,114,36
274.28125,933.00000,8.31000,106,130,70
271.84375,932.40625,8.74000,145,138,121
272.71875,932.71875,8.71000,76,76,67
274.56250,932.00000,8.56000,117,113,88
270.71875,932.71875,8.71000,95,109,73
272.81250,932.87500,8.74000,104,105,91
265.84375,932.71875,13.43000,132,162,72
272.71875,933.03125,8.51000,133,130,110
273.75000,932.03125,8.42000,146,139,120
274.37500,933.18750,8.31000,103,132,69
264.81250,933.12500,13.61000,78,105,26
266.50000,933.09375,13.43000,90,114,26
270.75000,932.06250,8.20000,125,123,104
265.93750,932.37500,13.24000,88,112,36
274.31250,931.78125,8.27000,138,133,109
275.12500,932.71875,8.50000,60,69,51
272.93750,933.50000,8.42000,133,138,121
274.87500,932.71875,8.92000,98,122,72
275.15625,933.00000,8.09000,83,92,67
274.37500,932.84375,8.32000,104,128,66
272.18750,932.37500,8.78000,138,137,113
266.06250,932.21875,13.46000,126,140,52
266.78125,932.43750,13.28000,109,134,48
263.93750,933.62500,12.07000,70,90,43
274.96875,933.15625,8.29000,92,106,63
264.71875,932.81250,13.44000,70,98,27
272.78125,933.00000,8.59000,108,110,98
263.93750,933.93750,12.06000,60,83,38
273.53125,931.93750,8.26000,162,155,136
264.21875,933.12500,13.33000,101,125,48
274.50000,931.96875,8.43000,138,149,94
272.15625,932.71875,8.82000,77,81,55
272.12500,932.12500,8.72000,121,116,96
271.68750,932.25000,8.73000,140,135,119
273.15625,931.71875,8.18000,140,143,127
264.18750,933.75000,12.31000,60,82,19
272.50000,932.71875,8.55000,110,114,94
265.84375,933.50000,13.69000,108,137,54
271.78125,932.53125,8.76000,112,108,87
274.28125,932.68750,8.88000,119,131,83
271.09375,932.28125,8.62000,159,156,134
274.50000,932.03125,8.58000,143,146,104
275.62500,932.28125,8.63000,102,100,81
264.40625,933.03125,13.55000,110,135,53
274.31250,932.93750,8.79000,88,95,67
274.00000,931.68750,8.24000,133,127,103
271.90625,932.68750,8.77000,118,130,91
273.84375,931.81250,8.25000,141,134,115
264.40625,933.25000,13.55000,90,113,44
266.12500,932.43750,13.26000,104,125,47
264.03125,933.87500,12.14000,72,94,36
275.59375,931.87500,8.62000,151,148,129
271.15625,932.18750,8.38000,144,145,121
264.81250,932.90625,13.57000,99,126,45
264.18750,933.75000,12.31000,60,81,19
264.12500,933.21875,12.99000,68,92,31
266.06250,932.96875,13.29000,81,115,27
264.40625,933.28125,13.51000,77,102,35
271.90625,932.96875,8.59000,96,96,74
274.84375,931.68750,8.21000,128,134,98
264.15625,933.40625,12.63000,74,102,33
275.96875,931.53125,8.29000,144,144,127
264.15625,933.25000,13.08000,89,115,41
275.62500,931.68750,8.26000,110,107,88
270.28125,932.18750,8.15000,152,149,127
266.03125,933.37500,13.69000,98,124,41
266.31250,933.56250,13.67000,95,112,39
266.09375,932.78125,13.07000,98,129,45
264.06250,933.40625,12.31000,67,89,32
264.87500,932.84375,13.50000,75,110,32
266.37500,932.25000,13.44000,120,140,59
264.12500,933.40625,12.44000,66,88,29
265.50000,932.62500,13.53000,65,104,17
266.28125,933.03125,13.02000,71,95,15
264.28125,933.56250,12.67000,68,87,26
266.21875,933.25000,13.64000,112,135,49
264.00000,933.59375,12.16000,67,87,35
274.31250,932.09375,8.68000,160,157,126
266.28125,932.75000,13.12000,86,114,35
265.90625,932.71875,13.26000,107,137,52
266.21875,933.53125,13.63000,104,127,45
266.53125,933.25000,13.61000,116,137,47
265.53125,932.46875,13.35000,95,125,39
272.21875,932.12500,8.61000,133,125,103
266.46875,932.43750,13.43000,118,142,58
272.00000,932.81250,8.67000,96,98,83
274.28125,933.00000,8.31000,106,130,70
265.56250,932.75000,13.48000,83,122,27
276.78125,932.28125,8.75000,89,89,72
274.37500,933.18750,8.31000,104,133,70
264.03125,933.90625,12.14000,86,108,48
272.12500,933.84375,7.99000,78,81,55
266.09375,933.62500,13.73000,103,125,43
270.28125,932.21875,8.20000,137,133,113
274.46875,932.21875,8.69000,141,157,95
270.28125,932.21875,8.41000,124,119,100
266.15625,933.65625,13.73000,105,124,45
274.18750,932.03125,8.55000,138,132,112
272.15625,932.71875,8.82000,77,81,56
272.75000,932.43750,8.81000,79,76,65
274.34375,933.43750,8.09000,97,106,82
275.43750,932.31250,8.63000,96,100,80
266.53125,932.81250,13.00000,65,86,27
266.34375,932.96875,12.99000,81,107,40
265.59375,933.40625,13.64000,106,133,57
266.28125,933.18750,13.55000,115,135,56
266.65625,932.96875,12.77000,91,117,46
275.40625,932.90625,8.21000,83,91,69
274.62500,932.68750,8.96000,106,131,54
266.37500,932.59375,13.23000,97,122,39
266.59375,933.06250,13.46000,85,106,30
265.84375,933.43750,13.41000,100,121,57
265.81250,932.68750,13.28000,104,134,48
264.06250,933.12500,13.07000,44,69,16
264.37500,933.37500,13.29000,50,73,22
266.18750,932.71875,13.13000,85,112,32
266.71875,933.03125,13.44000,83,104,39
266.59375,932.87500,13.46000,73,94,30
263.93750,933.71875,12.07000,76,97,50
272.34375,932.56250,8.77000,69,67,51
265.78125,932.65625,13.28000,101,131,46
264.25000,933.21875,13.29000,89,113,39
276.06250,932.12500,8.74000,137,131,113
263.96875,933.21875,12.66000,45,59,25
266.06250,932.84375,13.16000,102,135,48
264.53125,933.09375,13.46000,99,129,45
266.18750,933.21875,13.61000,106,129,41
264.34375,933.34375,13.28000,44,67,14
266.03125,933.09375,13.54000,106,135,41
264.06250,933.34375,12.47000,67,90,32
263.93750,933.09375,12.91000,73,97,37
274.68750,932.62500,9.02000,112,140,56
276.34375,932.43750,8.51000,100,99,86
273.06250,933.06250,8.62000,135,139,124
266.71875,932.78125,12.93000,96,122,37
266.40625,932.21875,13.41000,113,133,52
264.09375,933.34375,12.65000,55,81,16
276.15625,931.96875,8.71000,139,136,122
265.75000,932.68750,13.37000,105,141,51
266.12500,932.40625,13.37000,114,139,55
276.34375,932.31250,8.14000,99,99,89
264.25000,933.43750,12.96000,73,96,24
276.00000,931.75000,8.47000,154,150,131
266.37500,932.68750,13.16000,117,145,61
272.68750,932.75000,8.67000,83,82,69
275.18750,932.93750,8.29000,97,105,82
273.28125,932.03125,8.41000,139,139,119
276.93750,931.46875,8.25000,136,133,112
265.50000,932.37500,13.38000,93,128,35
265.93750,932.46875,13.22000,89,114,41
273.00000,931.75000,8.20000,145,144,118
276.00000,931.78125,8.47000,159,155,137
266.06250,932.78125,13.11000,108,139,53
275.15625,933.00000,8.09000,83,92,67
273.71875,932.03125,8.41000,149,142,123
264.00000,933.12500,12.97000,55,76,22
274.81250,931.71875,8.25000,140,144,110
273.12500,932.78125,8.85000,149,150,129
273.56250,932.87500,8.63000,119,127,104
266.56250,932.37500,13.33000,97,120,37
275.68750,932.50000,8.49000,105,113,79
274.90625,932.71875,8.92000,98,124,72
264.25000,933.43750,12.96000,73,96,24
266.56250,932.62500,13.14000,85,113,36
273.56250,932.65625,8.60000,122,133,96
273.00000,932.03125,8.41000,134,137,122
264.15625,933.25000,13.00000,91,117,45
266.43750,933.34375,13.63000,107,129,50
272.84375,931.87500,8.21000,148,151,118
274.93750,932.15625,8.67000,131,137,112
272.81250,933.15625,8.74000,129,125,105
265.96875,933.46875,13.76000,137,159,69
270.28125,932.21875,8.41000,124,119,100
272.06250,932.71875,8.81000,122,133,89
275.68750,932.59375,8.41000,89,92,80
271.62500,932.90625,8.63000,83,87,60
265.84375,933.25000,13.58000,88,117,37
264.09375,933.62500,12.26000,85,106,48
266.31250,933.06250,13.13000,101,124,35
275.84375,931.50000,8.25000,135,130,113
272.68750,932.15625,8.44000,127,120,102
275.84375,932.06250,8.73000,159,156,139
264.21875,933.56250,12.44000,91,111,48
272.84375,932.03125,8.40000,154,150,128
272.71875,931.90625,8.17000,145,140,113
271.18750,932.71875,8.61000,113,112,94
271.00000,933.87500,8.11000,125,119,105
264.21875,932.96875,13.35000,69,95,21
266.25000,932.34375,13.41000,125,144,62
272.34375,932.40625,8.75000,132,131,109
272.84375,933.46875,8.93000,105,109,94
265.53125,932.71875,13.41000,81,121,28
264.84375,932.81250,13.42000,75,104,27
271.59375,933.96875,8.01000,116,118,105
265.81250,933.40625,13.56000,89,109,54
266.59375,932.71875,13.00000,100,128,43
275.96875,932.21875,8.72000,122,119,105
272.56250,933.12500,8.45000,124,121,96
271.75000,933.81250,8.18000,110,113,96
275.12500,932.28125,8.62000,100,106,87
271.31250,932.09375,8.21000,123,122,104
266.50000,932.65625,13.10000,87,112,36
273.09375,932.15625,8.56000,161,156,136
266.31250,933.12500,13.52000,113,135,53
272.65625,933.59375,8.74000,102,103,85
272.96875,932.18750,8.61000,141,135,116
273.56250,931.90625,8.22000,134,129,109
265.78125,933.43750,13.56000,98,114,64
265.46875,932.56250,13.34000,62,92,17
275.56250,932.71875,8.19000,75,77,67
275.00000,932.40625,8.63000,90,108,69
275.65625,932.78125,8.10000,80,82,65
270.96875,933.93750,8.02000,120,114,103
265.87500,932.93750,13.49000,62,86,25
275.56250,932.62500,8.33000,85,88,76
263.90625,933.90625,12.03000,44,64,29
270.37500,932.34375,8.63000,153,152,128
270.96875,932.34375,8.63000,156,153,129
275.12500,932.59375,8.63000,73,93,61
266.25000,932.71875,13.14000,86,113,34
264.59375,932.84375,13.45000,73,100,29
266.59375,932.81250,12.93000,84,109,37
271.12500,931.93750,8.20000,133,135,114
266.43750,932.62500,13.16000,89,118,36
264.93750,932.81250,13.53000,90,125,45
274.81250,931.87500,8.52000,136,148,99
274.00000,931.62500,8.18000,139,133,109
274.31250,931.84375,8.34000,139,135,109
273.59375,931.93750,8.28000,150,146,125
265.78125,933.43750,13.33000,84,107,53
274.96875,931.96875,8.68000,134,143,104
273.06250,933.65625,7.99000,117,128,102
275.40625,932.18750,8.74000,115,118,92
277.03125,931.65625,8.43000,140,135,115
276.87500,931.62500,8.37000,119,115,97
273.06250,933.34375,8.65000,133,135,122
273.40625,933.37500,8.45000,105,109,95
265.65625,932.71875,13.54000,83,121,30
273.21875,933.21875,8.40000,123,126,115
273.28125,933.03125,8.54000,131,135,121
273.21875,933.53125,8.19000,108,115,97
275.31250,932.96875,8.30000,92,107,69
272.15625,932.09375,8.68000,110,104,88
266.12500,933.03125,13.45000,119,150,57
272.43750,932.06250,8.44000,140,130,108
270.93750,932.40625,8.69000,159,156,134
271.93750,932.18750,8.39000,147,141,115
277.09375,931.56250,8.32000,139,134,110
270.34375,932.37500,8.67000,144,147,120
273.84375,931.75000,8.21000,145,138,116
266.28125,932.21875,13.40000,99,119,40
271.25000,932.12500,8.26000,123,125,100
276.71875,931.87500,8.72000,144,141,127
271.75000,932.18750,8.37000,143,138,116
273.68750,931.84375,8.16000,128,121,102
273.84375,932.03125,8.52000,136,129,113
274.37500,933.18750,8.29000,103,132,69
274.12500,932.06250,8.63000,143,136,113
271.68750,932.15625,8.18000,150,145,122
274.56250,932.90625,8.84000,100,105,82
274.40625,932.90625,8.30000,107,131,70
266.03125,932.28125,13.39000,92,113,28
276.18750,932.56250,8.27000,89,86,69
275.15625,932.90625,8.38000,89,100,75
275.40625,931.68750,8.33000,135,134,112
275.06250,932.93750,8.88000,70,85,56
272.62500,933.65625,8.71000,97,94,77
276.81250,931.56250,8.32000,136,134,112
272.87500,933.62500,8.70000,103,108,91
273.71875,932.21875,8.67000,153,149,131
275.90625,932.56250,8.57000,100,97,79
274.15625,932.87500,8.06000,111,114,94
266.31250,932.87500,13.12000,78,104,28
272.34375,933.25000,8.32000,118,116,98
275.56250,931.84375,8.57000,146,144,128
275.87500,931.87500,8.58000,162,158,138
270.90625,932.68750,8.69000,107,109,90
273.53125,931.93750,8.26000,162,155,136
273.62500,932.06250,8.44000,168,161,140
274.25000,933.06250,8.22000,103,129,69
274.34375,933.43750,8.09000,97,106,82
275.40625,931.65625,8.32000,144,142,125
274.40625,932.96875,8.30000,110,136,74
276.31250,932.59375,8.32000,92,89,70
273.56250,932.18750,8.58000,159,157,130
271.62500,933.71875,8.48000,114,115,100
276.03125,931.75000,8.44000,151,147,128
266.12500,932.87500,13.04000,87,120,34
272.87500,932.59375,8.98000,132,130,116
276.40625,932.15625,8.73000,117,112,98
271.75000,933.90625,8.46000,116,118,99
271.09375,932.37500,8.69000,142,140,121
266.78125,932.75000,12.88000,102,128,43
273.96875,931.87500,8.36000,119,113,101
274.71875,931.75000,8.22000,117,116,92
270.81250,932.37500,8.67000,149,149,125
271.15625,933.87500,8.22000,116,118,106
264.00000,933.56250,12.14000,63,84,33
271.06250,932.84375,8.66000,103,103,89
266.87500,932.87500,12.84000,89,116,34
270.90625,932.96875,8.66000,94,95,79
276.31250,931.71875,8.49000,130,129,117
275.93750,931.84375,8.61000,157,155,140
271.75000,933.59375,8.26000,113,115,95
274.87500,932.87500,8.96000,124,151,80
274.68750,933.21875,8.42000,85,113,59
275.78125,931.71875,8.40000,141,138,123
270.87500,932.59375,8.68000,95,99,78
271.03125,932.43750,8.68000,136,134,117
266.65625,932.37500,13.31000,108,134,47
270.87500,933.56250,8.27000,105,106,97
276.87500,931.75000,8.60000,142,137,120
266.96875,933.00000,12.42000,118,133,76
275.15625,932.56250,8.57000,72,89,59
272.81250,933.46875,8.90000,106,110,93
274.31250,932.28125,8.80000,100,93,67
271.53125,933.90625,8.32000,96,96,84
271.68750,933.75000,8.49000,122,123,107
275.59375,931.87500,8.59000,148,145,128
276.37500,932.53125,8.42000,92,89,74
275.43750,931.71875,8.36000,137,136,117
276.50000,932.15625,8.78000,136,130,115
276.31250,932.03125,8.76000,160,155,140
276.18750,931.84375,8.59000,129,127,113
276.59375,932.03125,8.77000,149,144,128
274.43750,932.06250,8.61000,152,152,112
275.06250,931.93750,8.63000,127,137,94
274.43750,932.68750,8.31000,112,137,72
271.37500,933.46875,8.54000,108,110,93
271.68750,933.15625,8.53000,84,86,64
275.15625,931.93750,8.62000,146,156,107
274.59375,932.06250,8.64000,112,110,81
276.06250,931.71875,8.39000,142,137,119
271.43750,932.71875,8.68000,109,106,86
272.00000,933.03125,8.49000,123,126,104
266.59375,932.03125,12.75000,104,128,50
274.43750,932.81250,8.81000,88,98,63
272.12500,932.90625,8.48000,97,99,79
274.56250,931.68750,8.17000,134,138,104
277.25000,932.00000,8.77000,141,138,115
274.43750,932.31250,8.84000,97,111,75
263.96875,933.09375,12.97000,65,88,26
264.21875,933.50000,12.57000,93,115,47
276.34375,931.37500,8.23000,134,131,115
270.96875,933.62500,8.32000,119,118,103
275.00000,932.96875,8.09000,81,95,59
270.96875,933.28125,8.53000,116,117,104
275.18750,931.78125,8.42000,128,132,98
273.21875,932.09375,8.52000,133,134,118
266.06250,933.56250,13.75000,125,146,56
272.09375,932.15625,8.44000,123,120,105
271.65625,932.28125,8.69000,126,123,107
265.28125,933.12500,13.58000,71,99,23
272.56250,932.31250,8.66000,159,157,141
272.25000,932.59375,8.87000,146,149,129
276.15625,932.46875,8.58000,102,103,91
272.09375,932.15625,8.25000,105,100,85
266.59375,933.03125,13.47000,85,106,33
271.93750,932.87500,8.66000,93,96,76
264.00000,933.84375,12.13000,73,94,42
275.71875,932.28125,8.77000,104,104,92
272.78125,932.90625,8.68000,102,105,93
274.59375,931.90625,8.21000,116,112,87
272.65625,933.34375,8.64000,99,104,84
272.06250,932.78125,8.66000,103,106,90
275.56250,932.75000,8.18000,74,75,65
265.53125,932.40625,13.34000,91,121,34
272.12500,932.78125,8.66000,91,95,75
273.53125,932.12500,8.51000,141,138,114
273.09375,931.93750,8.31000,132,133,115
275.18750,932.93750,8.29000,97,105,82
274.43750,932.71875,8.84000,103,120,69
272.84375,932.03125,8.37000,147,143,120
273.87500,932.68750,8.65000,115,125,100
275.00000,931.81250,8.35000,138,135,109
276.68750,931.65625,8.43000,141,139,118
276.84375,931.71875,8.49000,148,144,124
272.50000,932.15625,8.44000,143,137,114
271.53125,932.18750,8.47000,123,123,106
275.28125,932.65625,8.42000,75,79,64
272.56250,932.34375,8.67000,154,152,137
265.25000,932.65625,13.54000,65,94,18
273.40625,932.06250,8.35000,163,160,141
266.12500,933.53125,13.69000,117,140,53
271.37500,932.37500,8.67000,163,161,145
272.84375,931.71875,8.16000,126,122,103
274.00000,931.96875,8.48000,137,129,110
273.03125,933.50000,8.39000,127,131,116
276.56250,931.53125,8.38000,135,133,116
275.75000,931.43750,8.19000,132,129,114
266.96875,933.00000,12.45000,119,134,76
265.78125,933.43750,13.57000,99,116,67
265.75000,933.50000,13.75000,115,139,64
265.93750,932.78125,13.27000,108,137,57
274.28125,932.00000,8.45000,157,152,124
275.31250,932.53125,8.48000,89,94,62
274.03125,931.68750,8.26000,126,121,99
263.75000,933.43750,11.87000,49,67,20
275.56250,932.12500,8.74000,135,136,118
276.28125,931.34375,8.21000,145,143,122
277.21875,931.71875,8.57000,149,145,121
272.87500,933.65625,8.01000,98,111,78
266.62500,933.21875,13.51000,120,138,62
276.68750,932.21875,8.77000,128,124,107
275.78125,932.65625,8.38000,81,83,62
275.84375,932.12500,8.73000,153,152,137
270.62500,932.84375,8.74000,103,123,72
276.40625,932.18750,8.69000,126,118,103
272.90625,933.62500,8.19000,110,119,94
273.12500,933.62500,7.99000,106,114,97
276.56250,931.59375,8.41000,128,127,108
274.40625,932.12500,8.67000,152,157,113
266.81250,932.59375,12.74000,116,143,51
274.53125,931.81250,8.23000,126,124,99
264.56250,933.09375,13.46000,94,121,38
266.59375,932.56250,13.25000,78,106,29
264.03125,933.71875,12.15000,77,96,45
275.71875,932.43750,8.53000,105,108,88
273.31250,933.50000,8.23000,105,112,96
273.15625,933.34375,8.40000,135,138,114
276.71875,931.78125,8.59000,145,142,123
264.15625,932.96875,13.29000,84,109,37
266.43750,932.56250,13.31000,90,113,30
275.46875,931.75000,8.41000,144,143,131
264.28125,933.12500,13.50000,92,114,39
272.40625,932.84375,8.46000,95,94,78
272.96875,933.34375,8.85000,109,111,91
271.93750,933.28125,8.46000,117,120,99
263.87500,933.31250,12.16000,70,91,44
265.12500,933.34375,13.65000,81,105,33
274.18750,933.21875,8.21000,116,136,78
266.09375,932.93750,13.15000,83,117,27
275.03125,931.56250,8.19000,140,143,119
272.65625,931.96875,8.25000,127,121,102
264.78125,933.03125,13.59000,77,102,28
272.81250,932.93750,8.67000,124,124,106
273.15625,933.12500,8.52000,121,125,112
274.78125,932.50000,8.49000,132,161,71
264.68750,933.00000,13.52000,81,105,38
265.75000,933.43750,13.35000,95,114,64
264.75000,933.06250,13.60000,61,87,17
275.96875,932.59375,8.52000,113,113,98
273.43750,933.40625,8.43000,105,109,95
275.25000,932.40625,8.54000,94,110,63
272.87500,932.46875,8.67000,107,109,103
275.21875,932.71875,8.31000,79,88,69
273.62500,932.65625,8.61000,121,131,94
273.34375,932.06250,8.40000,140,142,123
273.06250,931.71875,8.20000,132,134,121
275.68750,932.84375,8.11000,96,101,76
276.37500,932.34375,8.63000,112,108,92
266.43750,932.59375,13.23000,86,112,30
270.96875,932.53125,8.68000,136,133,111
265.56250,933.34375,13.51000,104,134,52
265.31250,933.15625,13.53000,61,86,17
273.93750,932.34375,8.83000,105,107,84
273.50000,933.50000,8.22000,143,147,122
264.31250,933.53125,12.87000,56,74,20
265.81250,933.50000,13.74000,106,137,52
275.68750,932.62500,8.27000,87,91,77
264.00000,933.46875,12.17000,58,78,26
265.50000,932.62500,13.53000,65,103,17
274.84375,933.12500,8.43000,89,110,55
263.84375,933.62500,11.99000,72,91,46
275.15625,933.12500,8.03000,84,86,72
272.15625,933.40625,8.21000,104,102,87
272.56250,933.50000,8.04000,101,103,81
275.31250,932.68750,8.40000,70,73,59
265.40625,932.75000,13.53000,91,126,38
266.46875,932.71875,13.09000,91,114,40
265.93750,932.68750,13.23000,103,132,50
266.31250,932.87500,13.09000,91,116,43
271.31250,933.31250,8.45000,119,116,98
265.87500,933.25000,13.70000,89,116,38
275.56250,931.81250,8.54000,145,143,129
276.75000,931.78125,8.60000,141,137,118
276.46875,932.43750,8.70000,98,95,77
271.25000,932.15625,8.30000,141,143,120
274.43750,932.40625,8.63000,113,140,61
263.81250,933.40625,11.96000,57,76,32
266.21875,933.53125,13.59000,97,118,42
271.93750,933.46875,8.38000,120,125,102
265.65625,932.34375,13.48000,114,140,54
266.71875,932.65625,12.89000,111,137,51
264.25000,933.37500,13.08000,69,92,22
271.56250,933.90625,8.23000,124,124,100
266.18750,933.00000,13.29000,86,116,35
272.31250,933.46875,8.02000,100,99,79
272.12500,933.53125,7.97000,95,107,68
274.56250,933.03125,8.30000,96,122,65
274.00000,932.53125,8.65000,137,151,112
274.68750,933.25000,8.42000,89,117,63
266.37500,932.96875,13.11000,83,111,40
265.50000,932.62500,13.53000,65,104,17
274.37500,933.25000,8.16000,99,125,63
266.00000,933.03125,13.53000,102,134,38
266.96875,932.96875,12.36000,117,132,75
274.53125,933.09375,8.32000,106,135,75
272.28125,932.93750,8.47000,101,101,80
275.00000,933.03125,8.39000,77,91,60
275.59375,932.37500,8.57000,100,99,78
274.15625,932.00000,8.54000,128,120,101
276.15625,932.15625,8.74000,140,135,119
275.71875,931.96875,8.73000,145,142,121
265.65625,933.15625,13.65000,109,140,52
275.12500,931.96875,8.68000,151,165,107
274.06250,932.37500,8.87000,106,114,79
275.84375,932.68750,8.37000,82,82,74
272.81250,932.71875,8.67000,135,133,114
266.34375,932.59375,13.25000,102,125,43
273.00000,932.56250,8.68000,101,101,91
272.68750,933.68750,8.69000,96,93,76
277.15625,931.75000,8.62000,144,140,119
270.75000,932.43750,8.72000,160,165,133
271.31250,933.81250,8.28000,119,121,107
272.46875,932.09375,8.56000,120,117,102
273.40625,931.87500,8.24000,142,133,116
271.78125,932.90625,8.63000,74,77,59
272.62500,932.96875,8.44000,119,115,98
264.06250,933.43750,12.24000,66,87,33
266.28125,932.50000,13.38000,74,95,18
272.31250,933.15625,8.37000,112,110,89
274.25000,933.09375,8.21000,100,127,67
265.87500,933.25000,13.70000,89,117,39
273.84375,932.87500,8.67000,97,108,85
273.56250,933.34375,8.57000,137,141,115
264.18750,933.00000,13.32000,74,97,26
271.56250,933.34375,8.39000,91,93,74
272.15625,932.93750,8.47000,109,111,92
270.75000,933.06250,8.61000,114,113,91
264.03125,933.28125,12.49000,68,86,38
271.28125,932.34375,8.68000,154,150,133
274.18750,933.40625,8.64000,127,138,96
271.62500,933.90625,8.07000,103,105,91
272.40625,933.25000,8.21000,113,109,93
273.71875,933.53125,8.17000,133,136,115
273.81250,932.21875,8.71000,159,155,135
272.25000,933.34375,8.18000,103,100,85
271.21875,933.18750,8.43000,105,102,84
271.40625,932.78125,8.67000,108,104,84
273.81250,932.31250,8.78000,95,93,76
270.56250,932.93750,8.72000,105,118,76
272.00000,933.09375,8.48000,124,124,103
272.75000,932.46875,8.82000,94,90,77
271.90625,932.03125,8.18000,141,137,121
272.21875,932.34375,8.77000,165,164,138
272.78125,933.21875,8.78000,109,113,98
271.71875,933.56250,8.30000,107,111,91
271.12500,933.81250,8.29000,125,125,107
272.75000,933.25000,8.57000,110,114,96
271.59375,933.43750,8.48000,110,115,84
273.03125,932.09375,8.49000,145,148,130
272.50000,932.09375,8.56000,118,115,100
270.78125,933.46875,8.37000,110,104,89
271.00000,933.71875,8.31000,114,116,99
271.59375,933.12500,8.52000,83,85,68
272.53125,933.09375,8.42000,125,118,98
271.81250,932.90625,8.61000,91,95,73
272.09375,933.18750,8.40000,114,115,94
273.56250,933.50000,8.22000,126,129,107
272.81250,932.96875,8.58000,125,124,109
272.84375,933.68750,8.60000,102,110,88
271.56250,932.56250,8.74000,135,128,111
272.43750,933.21875,8.31000,123,119,99
272.12500,932.46875,8.78000,59,64,49
272.15625,932.46875,8.84000,71,78,61
272.50000,932.15625,8.43000,133,126,106
271.40625,932.59375,8.64000,102,97,80
271.12500,932.56250,8.63000,118,112,94
271.12500,932.25000,8.59000,130,128,107
271.40625,932.03125,8.18000,106,102,90
271.71875,933.96875,8.39000,123,127,107
271.46875,933.96875,8.16000,111,111,95
271.15625,933.68750,8.36000,121,120,106
271.78125,933.09375,8.57000,95,96,77
270.84375,932.28125,8.46000,143,141,115
271.00000,932.12500,8.23000,142,146,120
270.84375,932.40625,8.71000,161,160,135
271.59375,933.81250,8.35000,126,127,111
273.00000,933.50000,8.92000,124,124,108
272.71875,932.18750,8.54000,122,115,98
272.37500,931.90625,8.53000,109,103,88
271.84375,933.18750,8.53000,112,115,93
272.75000,933.46875,8.10000,108,107,87
265.75000,932.50000,13.28000,68,100,20
271.28125,933.15625,8.51000,87,85,70
272.43750,933.46875,8.07000,116,111,92
272.00000,933.62500,8.13000,101,104,83
271.56250,931.87500,8.35000,121,117,105
272.37500,933.50000,8.01000,111,111,92
271.00000,932.62500,8.69000,103,103,85
271.50000,933.50000,8.43000,116,116,96
273.62500,931.87500,8.20000,112,107,88
271.37500,932.87500,8.63000,102,100,81
273.59375,932.53125,8.76000,111,120,89
273.46875,933.00000,8.34000,130,132,118
272.09375,933.50000,7.98000,92,96,77
271.09375,932.53125,8.64000,107,103,90
271.78125,932.84375,8.65000,116,122,85
271.28125,933.84375,8.27000,118,119,105
272.93750,932.50000,8.81000,102,96,80
272.31250,933.15625,8.38000,113,110,89
271.59375,932.96875,8.60000,97,100,74
272.43750,933.28125,8.21000,92,86,72
271.28125,933.25000,8.41000,112,109,89
271.43750,933.43750,8.43000,134,131,110
273.53125,932.34375,8.79000,133,132,116
270.96875,933.71875,8.21000,116,113,94
272.25000,932.03125,8.17000,144,137,116
271.75000,932.18750,8.37000,143,138,116
271.50000,932.21875,8.44000,162,157,135
270.40625,932.53125,8.74000,75,84,53
273.62500,931.81250,8.16000,129,130,112
273.50000,931.93750,8.40000,144,151,122
273.56250,931.90625,8.22000,155,148,129
273.90625,932.37500,8.83000,107,111,86
273.81250,932.31250,8.81000,121,125,100
273.81250,932.56250,8.82000,108,116,79
271.03125,932.31250,8.63000,159,156,133
273.96875,933.00000,8.36000,109,120,81
274.25000,933.31250,8.14000,104,128,75
271.68750,933.90625,8.06000,104,106,91
273.00000,931.96875,8.36000,127,128,110
273.25000,932.56250,8.77000,107,109,98
273.21875,932.78125,8.82000,138,140,116
273.37500,932.68750,8.76000,107,114,83
273.12500,932.68750,8.77000,113,114,99
273.09375,933.00000,8.78000,129,130,112
273.37500,933.56250,8.15000,102,108,90
273.09375,933.56250,8.19000,119,128,105
273.53125,933.28125,8.18000,101,104,82
272.09375,933.84375,7.99000,90,94,69
273.71875,933.00000,8.78000,99,106,88
271.84375,933.56250,8.26000,106,107,87
273.15625,932.21875,8.63000,151,147,129
271.03125,932.96875,8.63000,84,83,70
271.06250,932.09375,8.22000,140,145,114
270.65625,932.28125,8.65000,144,143,120
270.65625,932.43750,8.73000,155,165,126
270.81250,933.09375,8.60000,104,103,82
270.68750,932.96875,8.65000,116,116,89
272.87500,932.59375,8.84000,140,142,128
271.34375,932.71875,8.63000,123,116,98
271.93750,933.43750,8.41000,118,123,100
271.81250,933.56250,8.39000,91,94,77
271.65625,933.43750,8.41000,112,117,85
271.90625,933.71875,8.17000,103,106,89
271.53125,933.53125,8.42000,119,120,102
271.81250,933.84375,8.02000,107,109,95
271.56250,933.84375,8.28000,103,104,93
272.31250,932.43750,8.78000,132,130,106
271.12500,933.78125,8.31000,122,121,103
271.06250,932.96875,8.63000,88,87,72
272.84375,932.18750,8.63000,133,127,107
271.12500,932.40625,8.70000,159,157,139
272.28125,932.46875,8.80000,132,134,116
273.81250,933.46875,8.46000,119,121,101
273.43750,933.06250,8.63000,115,116,95
272.96875,932.90625,8.81000,123,122,103
273.87500,932.34375,8.82000,107,109,83
272.53125,932.15625,8.42000,113,104,88
264.28125,933.37500,13.13000,62,84,22
273.43750,932.21875,8.62000,167,164,137
272.81250,932.46875,8.82000,93,90,75
270.84375,932.40625,8.69000,157,156,132
271.21875,933.03125,8.54000,87,83,68
270.50000,932.56250,8.73000,93,110,67
273.21875,931.71875,8.17000,145,145,130
273.71875,932.21875,8.64000,168,164,142
271.09375,933.28125,8.47000,118,119,101
273.59375,932.90625,8.71000,114,121,103
271.65625,933.65625,8.40000,107,109,92
272.75000,933.46875,8.10000,107,106,86
272.46875,933.46875,8.11000,107,98,81
271.31250,933.12500,8.53000,91,89,72
271.96875,933.59375,8.13000,101,105,84
273.78125,932.25000,8.73000,135,131,113
273.62500,932.12500,8.51000,166,164,136
272.46875,933.18750,8.31000,135,130,111
272.87500,932.59375,8.84000,140,142,128
271.75000,932.90625,8.60000,106,112,86
271.68750,933.43750,8.43000,112,116,89
271.65625,932.90625,8.61000,87,92,64
272.68750,933.15625,8.50000,82,80,64
271.56250,933.59375,8.40000,113,116,99
271.40625,933.00000,8.57000,99,98,77
273.06250,933.28125,8.80000,106,107,91
272.18750,932.03125,8.62000,106,99,83
271.62500,932.53125,8.73000,131,124,107
271.96875,932.21875,8.38000,168,162,134
271.50000,932.21875,8.52000,139,139,117
273.31250,933.34375,8.12000,144,146,121
271.90625,932.12500,8.31000,112,107,91
272.12500,933.53125,7.97000,101,112,73
270.84375,933.37500,8.45000,101,101,88
270.71875,932.93750,8.67000,94,98,75
271.37500,932.25000,8.58000,181,176,154
272.81250,932.68750,8.53000,108,105,88
271.31250,932.90625,8.62000,94,91,74
272.96875,932.03125,8.44000,139,142,124
273.06250,933.25000,8.63000,105,106,90
273.09375,932.31250,8.72000,145,143,126
272.15625,932.68750,8.95000,125,129,90
272.31250,932.00000,8.59000,148,140,116
270.87500,932.81250,8.69000,95,97,80
272.43750,933.28125,8.21000,91,86,72
273.03125,931.93750,8.32000,131,130,111
271.40625,933.59375,8.36000,126,123,101
272.75000,933.56250,8.82000,103,109,91
272.62500,933.43750,8.76000,104,110,88
272.78125,933.28125,8.78000,105,109,93
270.59375,932.37500,8.73000,134,135,111
272.78125,932.96875,8.59000,127,126,110
270.71875,932.81250,8.71000,92,100,72
273.62500,932.28125,8.70000,89,86,72
272.81250,932.71875,8.76000,98,100,90
272.37500,932.53125,8.76000,77,75,62
272.25000,932.37500,8.78000,149,148,120
271.81250,932.50000,8.77000,96,90,73
274.25000,933.37500,8.70000,114,126,83
264.15625,933.59375,12.31000,64,85,24
273.78125,933.50000,8.31000,121,124,103
271.90625,932.93750,8.58000,101,103,82
271.96875,933.59375,8.13000,102,105,84
273.59375,932.53125,8.51000,124,131,99
272.00000,932.18750,8.62000,121,115,99
264.50000,932.96875,13.49000,119,145,58
271.68750,933.75000,8.20000,105,107,91
272.87500,932.56250,8.92000,134,133,120
266.06250,932.90625,13.17000,96,131,37
271.03125,933.50000,8.37000,111,113,100
271.18750,933.06250,8.54000,109,103,87
272.03125,932.18750,8.21000,101,96,80
271.21875,931.90625,8.16000,127,130,107
272.84375,933.65625,8.61000,102,109,88
272.68750,933.50000,8.82000,105,113,91
272.84375,933.37500,8.82000,94,97,80
272.09375,932.62500,8.85000,106,109,83
263.87500,933.31250,12.10000,64,85,41
272.28125,932.18750,8.61000,111,105,89
270.75000,932.03125,8.18000,121,120,100
273.50000,932.03125,8.35000,149,148,130
272.00000,933.12500,8.48000,129,124,105
271.25000,933.84375,8.20000,121,121,105
272.78125,933.15625,8.73000,95,95,81
272.93750,933.00000,8.72000,138,136,116
272.81250,932.84375,8.72000,92,94,83
272.18750,932.87500,8.53000,80,81,66
272.34375,932.43750,8.73000,141,138,115
271.75000,932.37500,8.72000,151,144,127
272.59375,933.59375,8.71000,104,108,87
271.93750,932.28125,8.73000,125,120,96
273.00000,932.93750,8.81000,120,119,99
273.12500,932.78125,8.84000,142,144,121
273.68750,933.43750,8.45000,146,149,127
274.06250,932.87500,8.13000,100,111,74
273.46875,932.21875,8.62000,155,152,127
272.87500,932.18750,8.64000,143,136,117
271.62500,932.25000,8.51000,142,140,118
271.56250,933.56250,8.41000,113,115,98
272.87500,933.62500,8.70000,103,108,91
273.56250,933.18750,8.70000,134,134,109
272.06250,933.03125,8.57000,124,122,97
273.15625,932.06250,8.35000,153,147,129
272.28125,932.00000,8.17000,140,133,112
264.31250,933.28125,13.35000,43,67,8
265.78125,932.59375,13.25000,71,103,26
271.84375,932.15625,8.41000,149,145,120
272.00000,932.71875,8.79000,118,129,86
270.81250,932.87500,8.69000,86,87,71
273.25000,933.37500,8.08000,142,145,119
272.46875,933.18750,8.31000,138,133,113
272.81250,932.68750,8.53000,108,105,88
271.50000,932.15625,8.32000,152,148,123
270.71875,932.50000,8.75000,118,132,89
270.81250,932.03125,8.25000,116,115,94
271.84375,932.59375,8.79000,106,107,83
271.28125,932.00000,8.22000,129,128,107
271.53125,932.90625,8.63000,100,102,78
272.43750,932.34375,8.64000,162,159,140
270.56250,932.25000,8.44000,127,123,105
271.68750,933.00000,8.57000,89,92,69
272.50000,933.34375,8.21000,82,84,63
270.90625,933.12500,8.60000,77,75,62
270.90625,933.46875,8.44000,107,103,91
272.09375,933.78125,8.02000,79,84,57
270.50000,932.09375,8.20000,97,94,77
272.65625,932.00000,8.29000,135,130,109
271.06250,933.37500,8.40000,106,108,92
273.46875,932.09375,8.51000,153,149,127
271.21875,932.87500,8.62000,96,94,78
270.78125,933.03125,8.62000,108,110,90
270.84375,932.31250,8.55000,130,128,103
270.53125,932.34375,8.72000,128,127,105
270.87500,933.71875,8.18000,89,86,79
271.84375,933.84375,7.98000,104,106,92
273.37500,933.06250,8.42000,91,93,80
273.53125,933.00000,8.26000,124,126,112
273.25000,933.37500,8.08000,143,146,120
272.21875,933.00000,8.47000,115,114,90
272.56250,932.21875,8.63000,121,114,95
272.75000,932.09375,8.41000,123,117,97
270.96875,932.31250,8.61000,157,153,128
270.65625,932.28125,8.65000,144,143,121
272.78125,932.71875,8.72000,84,86,79
270.65625,932.15625,8.23000,118,115,96
270.53125,932.25000,8.44000,120,117,98
272.71875,933.62500,8.75000,100,106,84
272.59375,933.43750,8.75000,102,108,86
272.75000,933.31250,8.72000,100,103,86
272.78125,933.03125,8.54000,101,102,89
273.25000,932.62500,8.67000,106,108,96
270.37500,932.21875,8.21000,146,144,125
273.81250,933.46875,8.45000,119,122,101
272.43750,933.46875,8.06000,114,110,90
272.71875,933.46875,8.02000,106,107,86
267.40625,932.46875,11.67000,81,108,35
267.03125,932.53125,12.14000,92,122,34
267.09375,932.71875,12.22000,90,117,34
266.68750,932.03125,12.71000,64,87,12
267.34375,932.31250,11.67000,91,114,54
267.40625,932.43750,11.71000,83,108,45
267.06250,932.75000,12.29000,70,97,16
267.28125,932.56250,11.90000,114,149,62
266.90625,932.56250,12.54000,105,135,41
267.15625,932.90625,12.59000,106,119,74
266.90625,932.50000,12.51000,98,127,34
267.06250,932.96875,12.57000,113,125,74
266.96875,932.03125,12.49000,98,122,34
266.75000,932.03125,12.64000,74,96,18
267.12500,932.90625,12.56000,107,121,73
267.28125,932.37500,11.72000,80,106,34
267.34375,932.43750,11.71000,84,107,45
266.96875,932.06250,12.50000,103,127,39
267.09375,932.65625,12.11000,107,135,48
267.12500,932.78125,12.41000,71,97,20
266.93750,932.71875,12.59000,92,120,34
267.06250,932.59375,12.13000,108,136,50
267.03125,932.12500,12.28000,114,142,58
267.21875,932.43750,11.81000,64,92,17
267.03125,932.71875,12.36000,85,113,30
267.06250,932.21875,12.01000,98,121,50
267.00000,932.71875,12.39000,92,120,34
267.06250,932.21875,12.01000,99,121,51
267.28125,932.31250,11.70000,79,107,33
267.00000,932.59375,12.26000,112,141,52
267.09375,932.75000,12.26000,73,100,19
267.15625,932.62500,12.09000,112,146,55
267.03125,932.03125,12.43000,115,139,51
267.25000,932.40625,11.72000,78,104,30
266.71875,932.09375,12.65000,93,116,33
266.87500,932.56250,12.65000,112,141,48
270.40625,932.18750,8.17000,147,146,126
270.78125,932.03125,8.21000,121,121,101
271.06250,931.90625,8.18000,131,135,112
270.31250,932.12500,8.13000,146,145,118
272.81250,932.03125,8.33000,140,135,113
273.09375,931.84375,8.25000,123,121,103
271.03125,931.96875,8.17000,168,172,145
272.65625,932.50000,8.76000,98,97,87
270.53125,932.68750,8.76000,101,130,65
272.93750,932.59375,8.68000,110,111,102
273.46875,933.50000,8.23000,139,143,119
273.03125,933.62500,8.04000,113,125,94
272.78125,932.37500,8.76000,128,121,102
271.43750,933.03125,8.55000,107,106,83
273.50000,932.87500,8.68000,120,124,99
267.21875,932.46875,11.91000,86,114,36
281.96875,933.53125,8.10000,75,86,57
281.96875,933.53125,7.97000,72,82,57
267.18750,932.93750,12.64000,98,111,69
281.96875,933.53125,7.99000,73,83,57
281.90625,933.46875,8.06000,66,76,51
282.00000,933.53125,8.10000,76,86,58
281.93750,933.46875,8.06000,68,78,52
281.93750,933.40625,8.09000,73,83,56
281.96875,933.43750,8.10000,79,92,59
281.96875,933.46875,8.06000,72,83,55
281.96875,933.53125,7.99000,73,83,57
281.93750,933.46875,8.07000,66,76,50
281.90625,933.43750,8.09000,66,76,50
282.00000,933.53125,8.10000,76,86,58
281.93750,933.43750,8.09000,69,79,52
281.96875,933.46875,8.12000,77,90,58
281.90625,933.46875,8.06000,66,76,51
271.75000,934.00000,8.39000,120,125,103
267.00000,932.90625,12.35000,111,126,71
272.50000,932.93750,8.42000,81,79,64
267.37500,932.40625,11.69000,82,106,45
267.00000,932.65625,12.24000,103,132,45
267.03125,932.00000,12.44000,120,144,56
266.93750,932.09375,12.66000,115,139,51
267.00000,932.53125,12.22000,94,124,34
267.18750,932.78125,12.16000,78,104,29
266.84375,932.50000,12.65000,115,144,51
267.15625,932.50000,12.04000,87,116,34
267.18750,932.81250,12.14000,79,105,29
267.43750,932.46875,11.65000,78,106,32
267.15625,932.46875,12.00000,81,108,31
266.96875,932.40625,13.36000,121,147,57
267.12500,932.78125,12.41000,71,98,20
266.90625,932.59375,12.61000,111,140,48
267.15625,933.03125,12.70000,122,136,78
266.93750,932.43750,12.46000,98,126,38
267.25000,932.34375,11.71000,75,103,26
267.21875,932.78125,12.13000,78,104,25
267.06250,932.53125,12.13000,100,130,44
267.12500,932.75000,12.24000,86,114,31
266.87500,932.03125,12.59000,91,116,32
266.93750,932.43750,13.36000,120,147,56
267.09375,932.50000,12.07000,90,121,36
267.18750,932.46875,11.93000,77,105,28
267.03125,932.59375,12.19000,96,124,37
267.06250,932.21875,12.01000,99,121,51
267.12500,933.00000,12.64000,120,133,78
266.78125,932.03125,12.56000,79,107,26
267.28125,932.59375,11.99000,126,161,70
266.93750,932.15625,12.67000,120,144,56
267.25000,932.40625,11.74000,77,103,29
267.21875,932.81250,12.11000,81,109,32
267.12500,932.71875,12.22000,94,122,39
267.06250,932.59375,12.10000,111,142,52
266.87500,932.46875,12.61000,101,130,38
267.00000,932.93750,12.34000,115,130,74
267.18750,932.25000,11.83000,62,80,27
266.84375,932.46875,13.27000,119,145,55
267.50000,932.40625,11.62000,86,114,39
267.03125,932.96875,12.48000,110,125,71
267.12500,932.21875,11.95000,83,104,39
267.12500,932.43750,12.01000,72,99,22
266.81250,932.00000,12.55000,81,107,26
267.06250,932.12500,12.12000,123,150,68
266.68750,932.06250,12.70000,70,91,15
267.18750,933.00000,12.72000,121,133,81
267.06250,932.09375,12.27000,96,122,35
266.87500,932.46875,12.58000,96,125,32
267.06250,932.53125,12.10000,100,129,45
267.25000,932.62500,12.00000,111,141,55
267.37500,932.31250,11.66000,83,104,47
266.90625,932.65625,12.57000,100,129,39
267.06250,932.81250,12.34000,97,114,55
267.43750,932.43750,11.74000,80,105,47
267.21875,932.68750,12.08000,111,141,54
266.81250,932.46875,13.26000,118,144,55
267.21875,932.31250,11.79000,84,112,35
266.93750,932.53125,12.45000,102,134,37
267.15625,933.00000,12.67000,117,129,77
267.37500,932.46875,11.67000,82,108,35
267.34375,932.37500,11.68000,81,107,38
267.15625,932.37500,11.95000,75,102,26
267.18750,933.00000,12.72000,121,134,79
267.18750,932.25000,11.83000,62,80,27
267.03125,932.87500,12.35000,104,118,65
267.15625,932.75000,12.30000,83,110,28
266.93750,932.21875,12.59000,94,118,32
267.09375,932.62500,12.10000,109,140,51
267.09375,932.40625,12.03000,70,98,21
271.25000,933.15625,8.47000,87,85,69
271.59375,933.90625,8.37000,112,113,99
271.62500,933.96875,8.34000,107,109,93
271.00000,932.06250,8.17000,132,137,109
271.37500,933.40625,8.44000,123,120,101
273.40625,932.93750,8.71000,140,144,123
272.62500,933.40625,8.74000,102,107,85
274.03125,932.71875,8.32000,89,92,71
271.96875,932.62500,8.78000,110,117,84
271.15625,932.18750,8.38000,145,145,122
272.09375,932.15625,8.24000,90,83,66
272.53125,933.21875,8.16000,95,91,72
272.78125,933.28125,8.73000,99,102,86
271.93750,932.34375,8.75000,166,160,141
271.96875,932.09375,8.27000,123,121,108
273.34375,931.96875,8.34000,138,137,118
272.65625,933.37500,8.13000,102,101,84
272.25000,933.21875,8.35000,102,100,82
272.34375,933.37500,8.18000,92,87,70
271.71875,933.50000,8.43000,99,102,83
271.00000,932.34375,8.62000,159,155,131
272.09375,932.53125,8.82000,92,96,78
272.37500,932.21875,8.60000,115,114,98
271.84375,932.12500,8.27000,106,102,84
272.71875,931.93750,8.23000,138,134,110
270.28125,932.21875,8.21000,133,129,109
272.59375,932.21875,8.63000,122,115,98
271.90625,933.37500,8.43000,115,120,98
272.75000,932.09375,8.42000,122,116,96
273.37500,932.21875,8.62000,182,179,150
273.09375,932.21875,8.62000,144,140,122
273.03125,933.40625,8.83000,133,135,117
271.31250,932.46875,8.64000,113,108,95
271.18750,932.31250,8.60000,143,142,120
272.03125,933.21875,8.42000,114,117,97
272.50000,932.09375,8.44000,132,124,102
272.06250,932.78125,8.66000,101,104,89
272.03125,932.65625,8.79000,123,133,93
272.28125,933.21875,8.34000,106,105,87
272.68750,932.09375,8.37000,113,106,90
270.62500,932.03125,8.17000,114,112,93
270.50000,932.18750,8.38000,158,153,132
273.46875,933.15625,8.53000,117,119,97
273.78125,932.21875,8.68000,158,154,136
273.65625,932.03125,8.45000,152,147,129
273.56250,932.40625,8.76000,77,77,65
273.50000,931.93750,8.43000,132,130,114
271.18750,933.46875,8.37000,126,121,97
270.87500,933.71875,8.17000,90,88,81
272.56250,933.03125,8.45000,142,138,119
272.12500,933.18750,8.45000,115,112,92
272.43750,933.21875,8.28000,128,124,105
272.31250,933.31250,8.21000,112,109,91
273.34375,932.03125,8.48000,152,149,133
271.71875,932.96875,8.60000,104,108,82
273.62500,933.31250,8.60000,133,136,111
271.03125,931.96875,8.17000,169,173,146
272.40625,933.43750,8.12000,102,94,77
272.87500,933.59375,8.16000,101,104,83
272.84375,933.56250,7.97000,94,98,73
272.09375,933.43750,8.20000,110,109,92
271.78125,933.65625,8.39000,100,101,82
271.96875,933.59375,8.13000,102,105,84
270.81250,933.46875,8.38000,112,108,91
271.50000,933.62500,8.37000,121,123,106
271.96875,932.06250,8.21000,124,118,102
271.71875,933.78125,8.18000,112,115,98
271.06250,933.56250,8.33000,131,130,114
271.59375,933.68750,8.22000,111,114,97
270.62500,932.93750,8.72000,103,109,78
270.53125,932.50000,8.71000,133,143,108
271.53125,932.21875,8.42000,153,149,126
274.03125,932.87500,8.18000,94,105,68
272.31250,932.00000,8.63000,107,100,84
272.56250,932.84375,8.42000,119,116,98
271.06250,933.71875,8.33000,122,124,111
272.81250,932.03125,8.38000,143,138,116
272.53125,932.06250,8.37000,131,123,100
270.62500,932.46875,8.72000,146,161,119
271.65625,933.12500,8.52000,78,79,59
272.65625,931.90625,8.17000,138,133,110
273.09375,933.25000,8.64000,86,87,73
271.71875,933.71875,8.38000,106,108,91
273.53125,933.28125,8.18000,101,105,82
270.93750,932.93750,8.70000,95,95,82
273.71875,931.93750,8.34000,162,155,136
270.50000,932.34375,8.72000,133,131,110
273.12500,932.62500,8.73000,108,106,91
273.87500,932.46875,8.67000,112,119,89
273.12500,932.34375,8.71000,129,129,114
273.31250,932.43750,8.89000,88,88,80
271.65625,933.40625,8.52000,111,114,93
270.81250,933.06250,8.62000,105,107,85
271.31250,933.90625,8.17000,115,117,106
271.43750,932.15625,8.23000,131,129,110
271.31250,933.59375,8.38000,117,117,95
271.65625,933.71875,8.52000,113,114,99
271.15625,933.71875,8.34000,125,124,108
270.59375,932.15625,8.28000,108,105,86
271.81250,933.56250,8.28000,113,115,94
271.78125,933.15625,8.57000,102,105,85
272.53125,932.65625,8.61000,123,120,100
271.50000,933.15625,8.53000,99,101,78
271.78125,932.65625,8.74000,130,134,111
271.40625,933.31250,8.46000,119,117,96
270.62500,932.75000,8.75000,111,137,76
270.46875,932.59375,8.75000,99,118,73
270.71875,932.28125,8.50000,114,111,92
272.87500,932.56250,9.02000,134,131,117
273.00000,933.40625,8.87000,105,107,90
272.78125,933.56250,8.84000,103,109,91
273.46875,933.12500,8.63000,118,117,96
272.87500,932.09375,8.49000,120,112,94
272.68750,933.37500,8.74000,104,110,90
272.84375,933.21875,8.79000,120,122,105
272.43750,932.50000,8.76000,92,90,79
272.28125,932.34375,8.78000,163,162,137
271.09375,931.96875,8.18000,140,143,121
271.84375,932.46875,8.75000,93,87,73
272.40625,932.15625,8.58000,124,121,105
271.59375,931.84375,8.15000,124,126,111
272.12500,933.53125,7.97000,102,114,73
273.03125,932.96875,8.81000,130,129,109
272.90625,932.84375,8.80000,113,110,93
272.43750,932.96875,8.41000,86,85,71
272.00000,932.34375,8.75000,168,162,141
271.15625,932.18750,8.36000,146,147,122
271.06250,933.46875,8.38000,116,117,102
271.21875,933.62500,8.38000,115,116,100
272.81250,933.28125,8.80000,108,112,96
274.03125,932.90625,8.16000,93,104,68
272.81250,932.96875,8.63000,108,108,95
273.68750,932.93750,8.73000,107,116,96
273.81250,933.53125,8.31000,116,118,98
273.84375,933.43750,8.47000,134,137,116
271.81250,933.06250,8.57000,94,96,76
273.53125,933.06250,8.27000,115,117,104
273.75000,933.46875,8.45000,124,127,106
273.59375,933.31250,8.61000,130,133,109
271.62500,933.78125,8.36000,128,129,113
265.93750,932.31250,13.29000,80,103,25
271.50000,933.93750,8.17000,99,100,84
271.18750,933.93750,8.13000,109,110,99
273.56250,933.59375,8.02000,127,130,109
267.03125,932.96875,12.48000,109,124,70
272.50000,932.09375,8.56000,118,115,100
273.15625,932.37500,8.71000,121,121,108
275.87500,931.46875,8.19000,131,128,112
274.31250,932.15625,8.78000,131,126,103
273.21875,933.50000,8.26000,112,119,101
273.12500,933.00000,8.73000,130,133,118
273.09375,933.34375,8.46000,142,144,124
274.40625,932.93750,8.31000,106,131,70
274.71875,932.68750,9.02000,134,162,75
273.40625,933.37500,8.45000,105,109,95
266.46875,932.93750,13.02000,85,115,46
271.65625,932.43750,8.72000,148,143,126
272.06250,932.87500,8.50000,85,87,64
273.40625,932.78125,8.70000,118,124,99
273.43750,932.75000,8.72000,114,121,92
273.68750,932.81250,8.65000,112,118,94
272.96875,932.62500,8.68000,106,106,96
265.59375,932.59375,13.30000,93,128,43
276.37500,931.46875,8.35000,145,144,129
272.96875,933.18750,8.74000,130,129,108
273.68750,933.21875,8.71000,145,149,122
276.31250,931.96875,8.75000,154,149,135
264.00000,934.06250,12.12000,90,107,53
272.40625,932.03125,8.73000,125,123,108
264.06250,933.68750,12.20000,72,93,38
265.40625,932.78125,13.55000,92,126,37
277.09375,931.65625,8.43000,134,130,110
273.06250,933.37500,8.66000,135,137,124
274.46875,931.96875,8.43000,143,153,100
274.81250,932.50000,8.74000,100,124,67
275.75000,932.78125,8.11000,84,85,67
274.37500,932.65625,8.33000,113,138,73
274.62500,931.81250,8.20000,107,106,80
274.62500,932.93750,8.30000,108,132,70
275.87500,931.53125,8.31000,153,146,127
274.43750,932.28125,8.72000,120,127,83
271.62500,933.84375,8.41000,126,127,111
275.12500,932.50000,8.57000,80,96,70
273.59375,932.62500,8.47000,135,150,107
272.50000,933.12500,8.40000,124,119,99
274.15625,933.31250,8.21000,113,124,84
272.65625,933.50000,8.70000,100,108,85
273.15625,932.43750,8.74000,115,115,104
275.56250,931.75000,8.33000,145,140,118
273.87500,931.68750,8.17000,144,138,116
273.87500,932.62500,8.91000,122,131,97
273.75000,931.93750,8.33000,155,150,132
274.46875,932.62500,8.68000,118,145,64
271.84375,933.81250,8.37000,102,105,88
265.18750,932.59375,13.53000,62,92,19
273.78125,933.06250,8.67000,115,119,103
274.25000,933.21875,8.04000,96,121,64
274.06250,932.34375,8.86000,111,116,87
274.90625,932.87500,8.83000,91,117,51
276.53125,931.37500,8.30000,153,148,130
276.25000,931.81250,8.54000,120,120,106
275.28125,932.62500,8.55000,66,75,57
270.65625,932.37500,8.72000,146,149,123
273.90625,932.18750,8.70000,157,156,130
274.06250,932.81250,8.75000,103,109,83
273.59375,933.53125,8.14000,128,131,110
272.81250,932.75000,8.74000,96,97,85
274.43750,932.06250,8.63000,148,151,110
274.12500,931.93750,8.47000,116,110,95
272.78125,933.34375,8.74000,106,110,93
275.12500,932.78125,8.78000,69,85,57
274.43750,932.40625,8.63000,113,140,60
274.37500,933.25000,8.16000,101,126,64
273.75000,933.50000,8.31000,123,126,105
271.03125,933.50000,8.36000,111,112,100
276.31250,931.93750,8.73000,154,152,137
276.81250,931.65625,8.41000,132,130,113
275.31250,931.56250,8.22000,131,134,109
274.31250,933.12500,8.28000,101,130,67
275.12500,932.09375,8.83000,167,167,133
271.84375,932.34375,8.73000,151,145,125
273.59375,933.43750,8.41000,119,123,101
273.68750,933.25000,8.59000,144,148,122
275.84375,931.87500,8.58000,163,158,138
273.28125,932.15625,8.55000,146,143,125
276.31250,932.46875,8.48000,110,104,84
271.68750,932.93750,8.61000,101,105,78
273.59375,932.90625,8.66000,114,121,101
266.21875,933.03125,13.32000,94,124,38
273.31250,931.87500,8.22000,128,125,106
272.71875,932.12500,8.42000,123,116,98
272.68750,932.93750,8.48000,126,122,104
264.96875,932.84375,13.57000,113,144,71
273.59375,932.59375,8.47000,135,148,107
272.18750,932.84375,8.56000,81,82,67
272.81250,932.59375,8.69000,151,152,140
274.68750,932.56250,8.50000,130,160,72
272.18750,933.34375,8.36000,84,82,67
